-0.00447 0.051619 -0.099987 0.042627 -0.49218 0.869449
0.020568 0.05078 -0.098237 -0.195181 -0.481862 0.854233
0.009041 0.049506 -0.100817 -0.0864302 -0.473261 0.876672
-0.01392 0.045257 -0.102394 0.133852 -0.435091 0.890382
0.032981 0.043215 -0.098494 -0.313169 -0.410349 0.856469
-0.0241 0.040756 -0.102394 0.231725 -0.391821 0.890382
-0.03475 0.040691 -0.099001 0.330442 -0.3869 0.860881
-0.00256 0.040682 -0.105503 0.0249871 -0.397151 0.917413
0.022617 0.040386 -0.10293 -0.217911 -0.389112 0.895045
0.011298 0.036726 -0.106486 -0.111029 -0.360918 0.925965
0.041334 0.033651 -0.099127 -0.393141 -0.320071 0.861972
0.029359 0.031264 -0.104555 -0.285049 -0.303549 0.909178
-0.04448 0.031259 -0.098494 0.422325 -0.29682 0.856469
0.001703 0.030941 -0.109224 -0.0172001 -0.312462 0.949775
-0.03432 0.02978 -0.103349 0.331257 -0.28745 0.898689
-0.02332 0.028645 -0.107081 0.230237 -0.282799 0.931137
0.018278 0.027355 -0.108575 -0.183101 -0.274021 0.944133
-0.01147 0.024385 -0.110473 0.118293 -0.251381 0.960632
0.038198 0.023408 -0.103658 -0.369231 -0.226261 0.901373
0.008443 0.020383 -0.11177 -0.0900597 -0.217409 0.971917
-0.0423 0.020313 -0.10261 0.407027 -0.19545 0.89226
-0.00303 0.017338 -0.112757 0.033788 -0.1936 0.980499
0.050024 0.017127 -0.099375 -0.476132 -0.163011 0.864133
-0.02136 0.017116 -0.110349 0.219709 -0.176021 0.959554
-0.03247 0.016225 -0.107328 0.321257 -0.16052 0.933288
0.030705 0.01595 -0.107967 -0.30558 -0.15874 0.938841
-0.05286 0.012691 -0.098494 0.501934 -0.1205 0.856471
0.041185 0.011965 -0.104555 -0.399878 -0.116179 0.909175
-0.04185 0.009356 -0.104555 0.406382 -0.0908396 0.909176
0.018818 0.008319 -0.11212 -0.2034 -0.0899198 0.974958
-0.01543 0.008015 -0.1128 0.172756 -0.0897398 0.980868
0.029206 0.004157 -0.109703 -0.29701 -0.0422699 0.953938
0.049775 0.003524 -0.101049 -0.4762 -0.03372 0.87869
0.039901 0.00094 -0.105867 -0.390441 -0.00920002 0.920582
-0.02927 0.00092 -0.10977 0.298005 -0.00936998 0.954518
-0.05349 -0.00168 -0.099001 0.508554 0.015982 0.860882
-0.0424 -0.00233 -0.104749 0.412094 0.022679 0.910859
0.013733 -0.00713 -0.113163 -0.158 0.0820732 0.984022
0.027956 -0.00718 -0.109901 -0.285211 0.0732283 0.955663
0.047482 -0.00944 -0.101844 -0.455529 0.0906108 0.885598
-0.01728 -0.01116 -0.11212 0.18683 0.120634 0.974958
-0.04811 -0.01155 -0.101279 0.460607 0.110582 0.880689
0.003796 -0.01478 -0.113201 -0.0438198 0.170659 0.984355
0.034949 -0.01545 -0.106572 -0.343669 0.151937 0.926718
0.022231 -0.01669 -0.110223 -0.228081 0.171251 0.958464
-0.03818 -0.0176 -0.10494 0.371452 0.171242 0.912524
-0.02764 -0.01785 -0.108575 0.276867 0.17877 0.944132
-0.01169 -0.02166 -0.111122 0.122276 0.226616 0.966278
0.050477 -0.02184 -0.098107 -0.478828 0.207207 0.853106
0.039778 -0.02568 -0.102394 -0.382429 0.246929 0.890379
0.025288 -0.02779 -0.106829 -0.249159 0.273823 0.928946
-0.03153 -0.0278 -0.10494 0.306813 0.270492 0.912524
-0.04197 -0.02853 -0.100583 0.400956 0.272489 0.874634
-0.02003 -0.02899 -0.107731 0.198935 0.287835 0.93679
0.00069 -0.02928 -0.10977 -0.00701999 0.298069 0.954519
0.014732 -0.03131 -0.107967 -0.14662 0.311575 0.938841
-0.02927 -0.03963 -0.101393 0.280335 0.379543 0.88168
-0.00499 -0.04217 -0.104749 0.04851 0.409857 0.910859
0.03371 -0.04346 -0.098107 -0.319778 0.412253 0.853106
-0.0177 -0.04369 -0.102502 0.170202 0.42021 0.891322
0.018201 -0.04394 -0.102285 -0.174911 0.422274 0.889433
0.005173 -0.04685 -0.102502 -0.0497501 0.450633 0.891322
-0.01279 -0.05327 -0.098237 0.121366 0.505528 0.854232
-0.0013 -0.05498 -0.098107 0.012292 0.521592 0.853107
-0.0013 -0.05498 -0.098107 0.012292 0.521592 0.853107
